# .PCD v0.7 - Point Cloud Data file format
VERSION 0.7
FIELDS x y z
SIZE 4 4 4
TYPE F F F
COUNT 1 1 1
WIDTH 1353
HEIGHT 1
VIEWPOINT 0 0 0 1 0 0 0
POINTS 1353
DATA ascii
0.043539856 -0.049048834 0.62300003
0.045084264 -0.048889909 0.62100005
0.046692982 -0.048809659 0.62
0.04837415 -0.048808094 0.62
0.050055157 -0.048806477 0.62
0.051819451 -0.048883531 0.62100005
0.053502835 -0.048881803 0.62100005
0.055186041 -0.048880037 0.62100005
0.056869078 -0.048878219 0.62100005
0.05855193 -0.04887636 0.62100005
0.060234591 -0.048874442 0.62100005
0.061917059 -0.048872482 0.62100005
0.063496925 -0.048791781 0.62
0.065071173 -0.048711043 0.61900002
0.066747636 -0.048708953 0.61900002
0.06842389 -0.048706822 0.61900002
0.070099935 -0.048704647 0.61900002
0.071891725 -0.048781112 0.62
0.073570043 -0.048778847 0.62
0.075369522 -0.048855219 0.62100005
0.07705012 -0.048852876 0.62100005
0.078730479 -0.048850484 0.62100005
0.080410615 -0.048848059 0.62100005
0.082090519 -0.048845604 0.62100005
0.083770201 -0.048843104 0.62100005
0.085587233 -0.048919216 0.62200004
0.087549746 -0.049073927 0.62400001
0.089379817 -0.049149949 0.625
0.091069348 -0.049147293 0.625
0.092907056 -0.04922324 0.62600005
0.09474992 -0.049299143 0.62700003
0.09659794 -0.049375005 0.62800002
0.098607622 -0.049529444 0.63000005
0.10030942 -0.049526617 0.63000005
0.1023348 -0.049680967 0.63200003
0.10420612 -0.049756676 0.63300002
0.10641723 -0.049989548 0.63600004
0.10864428 -0.050222371 0.63900006
0.11088724 -0.050455131 0.64200002
0.11261989 -0.050452083 0.64200002
0.11453041 -0.050527595 0.64300001
0.013779813 -0.05336288 0.65500003
0.015439284 -0.05295502 0.65000004
0.017124483 -0.052710034 0.64700001
0.018764155 -0.052383527 0.64300001
0.020413939 -0.05213844 0.64000005
0.022047365 -0.051893298 0.63700002
0.023627101 -0.051566634 0.63300002
0.025305159 -0.051484309 0.63200003
0.027020458 -0.051483396 0.63200003
0.028690195 -0.051400963 0.63100004
0.03040258 -0.051399928 0.63100004
0.032013077 -0.051235922 0.62900001
0.033666216 -0.051153328 0.62800002
0.035313811 -0.051070675 0.62700003
0.037014898 -0.051069424 0.62700003
0.038654111 -0.05098667 0.62600005
0.040287755 -0.050903853 0.625
0.041983023 -0.050902441 0.625
0.043608271 -0.050819535 0.62400001
0.045227941 -0.050736573 0.62300003
0.046842035 -0.050653562 0.62200004
0.048450552 -0.050570507 0.62100005
0.050134227 -0.050568838 0.62100005
0.05181773 -0.050567117 0.62100005
0.053501066 -0.05056534 0.62100005
0.055184219 -0.050563514 0.62100005
0.056867208 -0.05056164 0.62100005
0.058550008 -0.050559718 0.62100005
0.060232624 -0.050557751 0.62100005
0.061915044 -0.050555725 0.62100005
0.063494869 -0.050472248 0.62
0.065069079 -0.050388742 0.61900002
0.066637665 -0.050305188 0.61800003
0.06831117 -0.050302997 0.61800003
0.069984466 -0.050300758 0.61800003
0.071657546 -0.050298475 0.61800003
0.073449068 -0.050377529 0.61900002
0.075245798 -0.050456543 0.62
0.077047713 -0.050535511 0.62100005
0.07872805 -0.050533053 0.62100005
0.080408134 -0.050530549 0.62100005
0.082088001 -0.050528016 0.62100005
0.083767645 -0.050525431 0.62100005
0.085584641 -0.05060418 0.62200004
0.087547116 -0.050764233 0.62400001
0.08937715 -0.050842877 0.625
0.091066629 -0.050840139 0.625
0.092904307 -0.050918713 0.62600005
0.094747126 -0.050997235 0.62700003
0.096748926 -0.05115705 0.62900001
0.098604761 -0.051235497 0.63000005
0.10062496 -0.051395219 0.63200003
0.10249379 -0.051473577 0.63300002
0.10469702 -0.051714521 0.63600004
0.10674886 -0.051874105 0.63800001
0.10898126 -0.052114941 0.64100003
0.11105687 -0.052274425 0.64300001
0.11279222 -0.052271284 0.64300001
0.11506162 -0.052511983 0.64600003
0.013821393 -0.055307645 0.65700001
0.015509985 -0.054970391 0.65300006
0.017150337 -0.054548886 0.648
0.018792666 -0.05421152 0.64400005
0.020445105 -0.053958267 0.64100003
0.022081187 -0.053704962 0.63800001
0.023663582 -0.053367425 0.634
0.02530426 -0.053198192 0.63200003
0.027019495 -0.053197246 0.63200003
0.028734641 -0.053196244 0.63200003
0.030401506 -0.053111009 0.63100004
0.032113731 -0.053109884 0.63100004
0.033718631 -0.052940365 0.62900001
0.035368886 -0.05285497 0.62800002
0.037013598 -0.052769519 0.62700003
0.038714502 -0.052768175 0.62700003
0.040350813 -0.052682605 0.62600005
0.042048737 -0.052681148 0.62600005
0.043676637 -0.052595478 0.625
0.045371559 -0.052593905 0.625
0.046915721 -0.052423991 0.62300003
0.048526905 -0.052338172 0.62200004
0.050213229 -0.052336447 0.62200004
0.051815953 -0.052250534 0.62100005
0.05349924 -0.052248713 0.62100005
0.055182349 -0.052246831 0.62100005
0.056865279 -0.052244894 0.62100005
0.058548037 -0.05224292 0.62100005
0.060133606 -0.052156754 0.62
0.061813273 -0.052154683 0.62
0.063492745 -0.052152559 0.62
0.064856686 -0.051898047 0.61700004
0.066311985 -0.051727615 0.61500001
0.067866787 -0.051641263 0.61400002
0.069529198 -0.051638972 0.61400002
0.071307369 -0.051720735 0.61500001
0.073090732 -0.051802456 0.61600006
0.075000644 -0.051968206 0.61800003
0.076921165 -0.052133899 0.62
0.078598745 -0.052131366 0.62
0.080405578 -0.052212883 0.62100005
0.082085401 -0.052210268 0.62100005
0.083899893 -0.05229168 0.62200004
0.085857145 -0.052457117 0.62400001
0.087684684 -0.05253844 0.625
0.089374378 -0.052535649 0.625
0.091063835 -0.052532833 0.625
0.092901483 -0.052614037 0.62600005
0.094895363 -0.052779227 0.62800002
0.09689983 -0.05294437 0.63000005
0.098758332 -0.053025432 0.63100004
0.10078117 -0.053190473 0.63300002
0.10265268 -0.05327145 0.634
0.10485857 -0.053520426 0.63700002
0.10691307 -0.053685326 0.63900006
0.10914814 -0.05393419 0.64200002
0.11157184 -0.054267004 0.64600003
0.11349066 -0.05434775 0.64700001
0.0052458718 -0.061088283 0.70300001
0.015533163 -0.056828059 0.65400004
0.017202638 -0.056479875 0.65000004
0.018879512 -0.056218524 0.64700001
0.020476246 -0.055783335 0.64200002
0.022114985 -0.055521876 0.63900006
0.02370004 -0.055173472 0.63500005
0.02534337 -0.054998785 0.63300002
0.027018508 -0.054910924 0.63200003
0.028733592 -0.054909889 0.63200003
0.030448575 -0.054908797 0.63200003
0.032112565 -0.054820765 0.63100004
0.033771016 -0.054732673 0.63000005
0.035367608 -0.05455764 0.62800002
0.037071288 -0.054556306 0.62800002
0.038774848 -0.054554928 0.62800002
0.040413816 -0.054466609 0.62700003
0.042114396 -0.054465104 0.62700003
0.043744955 -0.054376677 0.62600005
0.045369938 -0.054288194 0.625
0.047064655 -0.054286528 0.625
0.048603192 -0.05411109 0.62300003
0.050211452 -0.054022461 0.62200004
0.051897563 -0.054020636 0.62200004
0.053497352 -0.053931903 0.62100005
0.055180416 -0.053929977 0.62100005
0.056863293 -0.053927988 0.62100005
0.05845172 -0.053839114 0.62
0.06003454 -0.053750195 0.61900002
0.061512057 -0.053574398 0.61700004
0.062978543 -0.053398564 0.61500001
0.064328894 -0.053135883 0.61200005
0.065770619 -0.052959986 0.61000001
0.067422375 -0.052957695 0.61000001
0.069073915 -0.052955355 0.61000001
0.070841193 -0.053039771 0.611
0.072495036 -0.053037345 0.611
0.07451272 -0.053295266 0.61400002
0.076422378 -0.053466331 0.61600006
0.078342631 -0.053637329 0.61800003
0.080273472 -0.053808264 0.62
0.082082734 -0.05389237 0.62100005
0.084032059 -0.054063194 0.62300003
0.085854374 -0.054147191 0.62400001
0.087681875 -0.054231141 0.625
0.08937154 -0.054228276 0.625
0.09120667 -0.054312147 0.62600005
0.093195356 -0.054482717 0.62800002
0.095194608 -0.054653239 0.63000005
0.097204439 -0.054823704 0.63200003
0.099068291 -0.054907374 0.63300002
0.10093731 -0.054991003 0.634
0.1029734 -0.055161327 0.63600004
0.10502001 -0.055331599 0.63800001
0.10724449 -0.055588543 0.64100003
0.10965492 -0.055932142 0.64500004
0.11156856 -0.056015544 0.64600003
0.11366273 -0.056185607 0.648
0.0071541988 -0.062994272 0.70300001
0.017201984 -0.058242306 0.65000004
0.018878797 -0.057972804 0.64700001
0.02053926 -0.057703242 0.64400005
0.022183362 -0.057433624 0.64100003
0.023773786 -0.057074346 0.63700002
0.025382448 -0.056804609 0.634
0.027060241 -0.056714013 0.63300002
0.028732514 -0.056623358 0.63200003
0.030447433 -0.056622233 0.63200003
0.032162249 -0.056621041 0.63200003
0.033823356 -0.056530207 0.63100004
0.035422601 -0.056349713 0.62900001
0.037069909 -0.056258764 0.62800002
0.038773406 -0.056257337 0.62800002
0.040476769 -0.056255847 0.62800002
0.042112842 -0.05616473 0.62700003
0.043813221 -0.056163121 0.62700003
0.045440868 -0.056071885 0.62600005
0.047062933 -0.0559806 0.625
0.048679437 -0.05588926 0.62400001
0.05029035 -0.055797867 0.62300003
0.051895682 -0.055706427 0.62200004
0.053495426 -0.055614933 0.62100005
0.055089567 -0.055523392 0.62
0.056769688 -0.055521354 0.62
0.058166813 -0.055250626 0.61700004
0.059644472 -0.055069406 0.61500001
0.061011422 -0.054798611 0.61200005
0.062464323 -0.054617319 0.61000001
0.0639062 -0.054435991 0.60800004
0.065552689 -0.054433689 0.60800004
0.066977926 -0.054252286 0.60600001
0.068618596 -0.054249905 0.60600001
0.070143111 -0.054157946 0.60500002
0.07201796 -0.054334503 0.60700005
0.074024767 -0.054600496 0.61000001
0.075799488 -0.054687414 0.611
0.077959679 -0.055042781 0.61500001
0.08001183 -0.055308584 0.61800003
0.081947818 -0.05548482 0.62
0.084029272 -0.055750482 0.62300003
0.085851535 -0.055837106 0.62400001
0.087678991 -0.055923685 0.625
0.089654602 -0.056099698 0.62700003
0.091640778 -0.056275647 0.62900001
0.093637541 -0.056451544 0.63100004
0.095493764 -0.056537922 0.63200003
0.09750893 -0.056713704 0.634
0.099221662 -0.056710545 0.634
0.10125254 -0.056886237 0.63600004
0.10313208 -0.056972444 0.63700002
0.10534596 -0.057237469 0.64000005
0.10757581 -0.057502434 0.64300001
0.10999159 -0.057856765 0.64700001
0.11173788 -0.057853352 0.64700001
0.11401015 -0.058118153 0.65000004
0.0071742721 -0.065084927 0.70500004
0.0090623479 -0.064899959 0.70300001
0.017307168 -0.060373805 0.65400004
0.018965594 -0.060003836 0.65000004
0.020634135 -0.059726115 0.64700001
0.022251712 -0.059356023 0.64300001
0.023847504 -0.058985878 0.63900006
0.025461536 -0.058707982 0.63600004
0.027101941 -0.058522336 0.634
0.028776865 -0.058428936 0.63300002
0.030494431 -0.058427777 0.63300002
0.032161016 -0.058334261 0.63200003
0.033875659 -0.058332976 0.63200003
0.035533879 -0.058239333 0.63100004
0.037127521 -0.05805333 0.62900001
0.038771927 -0.057959568 0.62800002
0.040475234 -0.05795804 0.62800002
0.042178407 -0.057956457 0.62800002
0.043811567 -0.05786252 0.62700003
0.045511741 -0.05786081 0.62700003
0.047136467 -0.057766762 0.62600005
0.048755616 -0.057672665 0.625
0.050288469 -0.057486232 0.62300003
0.051893752 -0.057392038 0.62200004
0.0534073 -0.057205517 0.62
0.054909837 -0.057018954 0.61800003
0.056401365 -0.056832355 0.61600006
0.057881869 -0.056645703 0.61400002
0.059351359 -0.056459021 0.61200005
0.060710132 -0.056180045 0.60900003
0.062257264 -0.056085538 0.60800004
0.06369368 -0.055898741 0.60600001
0.06511908 -0.05571191 0.60400003
0.06675449 -0.055709515 0.60400003
0.068389691 -0.055707071 0.60400003
0.070024699 -0.055704582 0.60400003
0.071659498 -0.055702046 0.60400003
0.073536776 -0.055883896 0.60600001
0.075548738 -0.056157898 0.60900003
0.077449948 -0.056339625 0.611
0.079620674 -0.056705691 0.61500001
0.081680663 -0.056979489 0.61800003
0.084026404 -0.057437602 0.62300003
0.085848622 -0.05752686 0.62400001
0.087676041 -0.057616077 0.625
0.08993756 -0.057981778 0.62900001
0.091929108 -0.058163058 0.63100004
0.093782827 -0.058252107 0.63200003
0.095792793 -0.058433272 0.634
0.097659543 -0.058522224 0.63500005
0.099531434 -0.058611128 0.63600004
0.10140847 -0.058699992 0.63700002
0.10345258 -0.058880959 0.63900006
0.10550722 -0.059061866 0.64100003
0.107907 -0.059426997 0.64500004
0.11015814 -0.059699927 0.648
0.11190711 -0.059696421 0.648
0.0052900235 -0.067376509 0.70900005
0.0071739848 -0.066996142 0.70500004
0.0090619847 -0.066805743 0.70300001
0.01092349 -0.066520259 0.70000005
0.018994015 -0.061860882 0.65100002
0.020633314 -0.061479982 0.64700001
0.02228543 -0.061194047 0.64400005
0.023883874 -0.060813036 0.64000005
0.025540587 -0.060622003 0.63800001
0.02718636 -0.060430907 0.63600004
0.028866643 -0.060334764 0.63500005
0.030493228 -0.060143545 0.63300002
0.032210633 -0.060142297 0.63300002
0.033874322 -0.060045965 0.63200003
0.035532482 -0.059949577 0.63100004
0.037244119 -0.059948135 0.63100004
0.03889389 -0.05985162 0.63000005
0.040538106 -0.059755046 0.62900001
0.042176764 -0.059658416 0.62800002
0.04387974 -0.059656721 0.62800002
0.045509979 -0.059559975 0.62700003
0.047209941 -0.059558164 0.62700003
0.048753738 -0.059366316 0.625
0.050286543 -0.059174418 0.62300003
0.051808342 -0.058982484 0.62100005
0.053232994 -0.058695521 0.61800003
0.054730058 -0.058503497 0.61600006
0.056216106 -0.058311425 0.61400002
0.057691149 -0.058119312 0.61200005
0.059058204 -0.0578322 0.60900003
0.060508497 -0.057640016 0.60700005
0.062050164 -0.057542741 0.60600001
0.06348113 -0.057350483 0.60400003
0.065008871 -0.057253126 0.60300004
0.066641517 -0.057250675 0.60300004
0.06816075 -0.057153236 0.60200006
0.069790289 -0.057150692 0.60200006
0.07153827 -0.057243027 0.60300004
0.073170111 -0.057240386 0.60300004
0.075173877 -0.057522457 0.60600001
0.07719367 -0.057804462 0.60900003
0.079100013 -0.057991475 0.611
0.081281282 -0.058368251 0.61500001
0.08375372 -0.058934748 0.62100005
0.085845627 -0.059216447 0.62400001
0.08795356 -0.059498087 0.62700003
0.090077452 -0.059779648 0.63000005
0.092071645 -0.059966255 0.63200003
0.094076402 -0.060152795 0.634
0.09594065 -0.060244419 0.63500005
0.097810052 -0.060335994 0.63600004
0.099684604 -0.060427517 0.63700002
0.10172351 -0.060613856 0.63900006
0.10361107 -0.060705286 0.64000005
0.10616215 -0.061176062 0.64500004
0.10840539 -0.06145706 0.648
0.11015461 -0.061453503 0.648
0.11190355 -0.061449908 0.648
0.001440587 -0.069298625 0.70900005
0.0033557091 -0.06910304 0.70700002
0.0052599614 -0.06890738 0.70500004
0.0071533374 -0.068711638 0.70300001
0.0090487218 -0.068613559 0.70200002
0.01095425 -0.068613149 0.70200002
0.012823101 -0.068417169 0.70000005
0.020728139 -0.063526846 0.65000004
0.02238833 -0.06323275 0.64700001
0.02399485 -0.062840872 0.64300001
0.025619611 -0.062546656 0.64000005
0.027270738 -0.062350109 0.63800001
0.028910927 -0.0621535 0.63600004
0.030588333 -0.062054556 0.63500005
0.032260209 -0.061955545 0.634
0.033926554 -0.061856478 0.63300002
0.035587359 -0.061757337 0.63200003
0.037301641 -0.061755855 0.63200003
0.038954061 -0.061656587 0.63100004
0.040665377 -0.061654981 0.63100004
0.042309403 -0.061555594 0.63000005
0.043947861 -0.061456151 0.62900001
0.045580756 -0.061356645 0.62800002
0.047208078 -0.061257087 0.62700003
0.048751824 -0.061059777 0.625
0.050203856 -0.060764734 0.62200004
0.05172288 -0.060567316 0.62
0.053144779 -0.060272183 0.61700004
0.054550242 -0.05997701 0.61400002
0.056030829 -0.059779476 0.61200005
0.057500396 -0.059581898 0.61000001
0.058861993 -0.05928662 0.60700005
0.06030681 -0.059088957 0.60500002
0.061740629 -0.05889127 0.60300004
0.063058332 -0.058595885 0.60000002
0.064683005 -0.058593433 0.60000002
0.066307478 -0.05859093 0.60000002
0.067931756 -0.058588389 0.60000002
0.069555841 -0.058585785 0.60000002
0.071179718 -0.05858314 0.60000002
0.072924726 -0.058678083 0.60100001
0.074798986 -0.058870595 0.60300004
0.076810598 -0.059160661 0.60600001
0.07896769 -0.059548285 0.61000001
0.081146196 -0.059935819 0.61400002
0.083346114 -0.060323276 0.61800003
0.085842572 -0.060905859 0.62400001
0.088230975 -0.061390735 0.62900001
0.090360232 -0.061680343 0.63200003
0.092359766 -0.061872274 0.634
0.094221525 -0.061966576 0.63500005
0.096390583 -0.062255971 0.63800001
0.098114267 -0.06225257 0.63800001
0.10015067 -0.062444285 0.64000005
0.10203844 -0.062538378 0.64100003
0.10441702 -0.062925093 0.64500004
0.10681695 -0.063311741 0.64900005
0.10923825 -0.063698307 0.65300006
0.11049095 -0.063401997 0.65000004
0.11207258 -0.063300774 0.64900005
-0.0024051527 -0.071119741 0.708
-0.00048128204 -0.070818461 0.70500004
0.0014323991 -0.070818432 0.70500004
0.0033223445 -0.070316076 0.70000005
0.005222437 -0.07031589 0.70000005
0.0071428614 -0.070516534 0.70200002
0.0090483399 -0.070516184 0.70200002
0.010953787 -0.070515759 0.70200002
0.012859196 -0.070515253 0.70200002
0.01474353 -0.070414215 0.70100003
0.0224912 -0.065287516 0.65000004
0.024105795 -0.064884767 0.64600003
0.025738629 -0.064582393 0.64300001
0.027355092 -0.064279959 0.64000005
0.02895518 -0.063977458 0.63700002
0.030683402 -0.063976213 0.63700002
0.032360639 -0.063874453 0.63600004
0.033978749 -0.063672207 0.634
0.035698507 -0.063670754 0.634
0.037359126 -0.063568801 0.63300002
0.039014194 -0.063466795 0.63200003
0.040728156 -0.063465141 0.63200003
0.042441983 -0.06346342 0.63200003
0.04401594 -0.063260809 0.63000005
0.045724064 -0.063258961 0.63000005
0.047206167 -0.062955819 0.62700003
0.048749853 -0.062753044 0.625
0.050201837 -0.062449828 0.62200004
0.051553972 -0.062046159 0.61800003
0.053056531 -0.061843254 0.61600006
0.054459225 -0.061539896 0.61300004
0.055937055 -0.061336897 0.611
0.057309609 -0.061033472 0.60800004
0.058665734 -0.060730014 0.60500002
0.060005423 -0.060426526 0.60200006
0.061431061 -0.060223367 0.60000002
0.062740594 -0.059919808 0.597
0.064357094 -0.05991732 0.597
0.065973401 -0.059914779 0.597
0.067589507 -0.059912179 0.597
0.069205411 -0.05990953 0.597
0.070821129 -0.059906833 0.597
0.072557971 -0.060004435 0.59800005
0.074424051 -0.060202308 0.60000002
0.076427504 -0.060500458 0.60300004
0.078576393 -0.060898855 0.60700005
0.080746725 -0.06129716 0.611
0.08293847 -0.061695393 0.61500001
0.085701875 -0.062494792 0.62300003
0.088368051 -0.063193761 0.63000005
0.090499938 -0.063491389 0.63300002
0.092647813 -0.063788965 0.63600004
0.094663285 -0.06398616 0.63800001
0.096689329 -0.06418331 0.64000005
0.09857215 -0.064280108 0.64100003
0.1006166 -0.064477123 0.64300001
0.1028308 -0.064774372 0.64600003
0.10506096 -0.065071538 0.64900005
0.10763621 -0.065569155 0.65400004
-0.0023846673 -0.07241945 0.70200002
-0.00047784805 -0.072213188 0.70000005
0.0014181156 -0.072006844 0.69800001
0.0033127088 -0.07200674 0.69800001
0.0052147512 -0.072109714 0.69900006
0.0071222046 -0.072212614 0.70000005
0.0090350611 -0.072315417 0.70100003
0.010953315 -0.072418138 0.70200002
0.012858642 -0.072417624 0.70200002
0.014763926 -0.072417013 0.70200002
0.01662167 -0.072210021 0.70000005
0.024179392 -0.066841558 0.648
0.025817582 -0.066531032 0.64500004
0.027439404 -0.06622044 0.64200002
0.029090311 -0.066012926 0.64000005
0.030730264 -0.065805346 0.63800001
0.032410145 -0.065700851 0.63700002
0.034084491 -0.06559629 0.63600004
0.035753302 -0.065491661 0.63500005
0.037416566 -0.065386966 0.634
0.039074283 -0.065282211 0.63300002
0.040790886 -0.065280512 0.63300002
0.042440213 -0.06517563 0.63200003
0.044153832 -0.065173805 0.63200003
0.045722168 -0.064965673 0.63000005
0.047354784 -0.064860605 0.62900001
0.048747841 -0.064446121 0.625
0.050199769 -0.064134732 0.62200004
0.05155186 -0.063720182 0.61800003
0.053054359 -0.063511804 0.61600006
0.054368176 -0.063097179 0.61200005
0.055843238 -0.062888719 0.61000001
0.057213042 -0.062577121 0.60700005
0.058469445 -0.062162399 0.60300004
0.059803668 -0.06185073 0.60000002
0.06122385 -0.061642118 0.59800005
0.062738098 -0.061536539 0.597
0.064246751 -0.06143092 0.59600002
0.065639287 -0.061222184 0.59400004
0.067360431 -0.061322611 0.59500003
0.069086798 -0.061422966 0.59600002
0.07081838 -0.06152327 0.597
0.072433829 -0.061520461 0.597
0.074173123 -0.061620656 0.59800005
0.076044358 -0.06182383 0.60000002
0.078314528 -0.062336039 0.60500002
0.08061152 -0.062848151 0.61000001
0.082935348 -0.06336017 0.61500001
0.085561119 -0.064078137 0.62200004
0.088645279 -0.065105021 0.63200003
0.090782531 -0.065410696 0.63500005
0.093227081 -0.065922298 0.64000005
0.095253311 -0.066124819 0.64200002
0.097139023 -0.06622427 0.64300001
0.099337474 -0.066529661 0.64600003
0.10155186 -0.066834979 0.64900005
0.10362303 -0.06703724 0.65100002
0.10586664 -0.067342423 0.65400004
0.12240954 -0.07185255 0.69800001
0.12518315 -0.072363012 0.70300001
-0.0042777015 -0.074109733 0.70000005
-0.0023709745 -0.073898137 0.69800001
-0.00047441389 -0.073580585 0.69500005
0.0014119581 -0.073580571 0.69500005
0.0033030713 -0.073686332 0.69600004
0.0051996009 -0.073792011 0.69700003
0.0071117156 -0.07400348 0.69900006
0.0090217739 -0.074108988 0.70000005
0.010952832 -0.074320279 0.70200002
0.012876392 -0.074425623 0.70300001
0.014784307 -0.074425012 0.70300001
0.016692169 -0.074424304 0.70300001
0.018520605 -0.074105926 0.70000005
0.025936533 -0.068596147 0.648
0.027566426 -0.068277396 0.64500004
0.029179949 -0.067958578 0.64200002
0.030825261 -0.067745559 0.64000005
0.0325105 -0.067638323 0.63900006
0.034190197 -0.067531005 0.63800001
0.035920665 -0.067529477 0.63800001
0.037532989 -0.067316189 0.63600004
0.039134335 -0.067102842 0.634
0.040853579 -0.067101106 0.634
0.042572696 -0.067099303 0.634
0.044221807 -0.06699159 0.63300002
0.045865364 -0.066883825 0.63200003
0.047428064 -0.066670179 0.63000005
0.048745781 -0.066138998 0.625
0.050197657 -0.065819427 0.62200004
0.051549699 -0.065393999 0.61800003
0.052879892 -0.064968534 0.61400002
0.05427707 -0.064648844 0.611
0.055749379 -0.064434923 0.60900003
0.056927916 -0.063903548 0.60400003
0.058273118 -0.063583754 0.60100001
0.059601884 -0.06326393 0.59800005
0.061118975 -0.063155636 0.597
0.062630475 -0.063047305 0.59600002
0.064028569 -0.062833145 0.59400004
0.06563665 -0.0628305 0.59400004
0.06724453 -0.062827803 0.59400004
0.068968132 -0.062930815 0.59500003
0.070696943 -0.063033767 0.59600002
0.072430968 -0.06313666 0.597
0.074170209 -0.063239492 0.59800005
0.075914644 -0.063342266 0.59900004
0.078052603 -0.063762218 0.60300004
0.080211967 -0.064182073 0.60700005
0.082527623 -0.064707577 0.61200005
0.088782161 -0.066921197 0.63300002
0.091207966 -0.067446344 0.63800001
0.093514904 -0.067865685 0.64200002
0.095843218 -0.068284944 0.64600003
0.098041847 -0.068598412 0.64900005
0.10010266 -0.068806104 0.65100002
0.10217404 -0.069013745 0.65300006
0.12052181 -0.073744811 0.69800001
0.12275605 -0.073951833 0.70000005
0.12482274 -0.074053161 0.70100003
0.12689453 -0.074154451 0.70200002
-0.0061685168 -0.075897418 0.69900006
-0.0042469553 -0.07546334 0.69500005
-0.0023538843 -0.075246319 0.69300002
-0.00047234472 -0.075137801 0.69200003
0.0014098628 -0.075354949 0.69400001
0.0032934309 -0.075354837 0.69400001
0.0051919073 -0.075571813 0.69600004
0.0070910477 -0.075680114 0.69700003
0.0090213679 -0.076005481 0.70000005
0.010952339 -0.076222181 0.70200002
0.012857497 -0.076221637 0.70200002
0.014783642 -0.076329589 0.70300001
0.01669142 -0.076328874 0.70300001
0.018546229 -0.076110922 0.70100003
0.020390121 -0.075892903 0.69900006
0.027693408 -0.070350386 0.648
0.029405901 -0.070240535 0.64700001
0.030968379 -0.069804929 0.64300001
0.032661684 -0.069694951 0.64200002
0.034403034 -0.069693446 0.64200002
0.036087982 -0.069583327 0.64100003
0.037708372 -0.069364578 0.63900006
0.039379507 -0.069254316 0.63800001
0.041109528 -0.069252536 0.63800001
0.042839423 -0.069250681 0.63800001
0.044569176 -0.069248758 0.63800001
0.046008512 -0.068812609 0.634
0.047576565 -0.068593495 0.63200003
0.048821677 -0.067940198 0.62600005
0.050195497 -0.067503929 0.62200004
0.051630899 -0.067176141 0.61900002
0.052877631 -0.066631272 0.61400002
0.054274768 -0.06630341 0.611
0.055655476 -0.06597551 0.60800004
0.05683127 -0.065430559 0.60300004
0.058173712 -0.065102592 0.60000002
0.059599392 -0.064883091 0.59800005
0.061218798 -0.064880535 0.59800005
0.062627867 -0.064660944 0.59600002
0.064025916 -0.064441316 0.59400004
0.065633945 -0.064438619 0.59400004
0.067241773 -0.064435862 0.59400004
0.068965316 -0.064541519 0.59500003
0.070694074 -0.064647123 0.59600002
0.072428048 -0.064752661 0.597
0.074167237 -0.064858153 0.59800005
0.076038338 -0.065072015 0.60000002
0.078049503 -0.065394275 0.60300004
0.080208816 -0.065824896 0.60700005
0.082524382 -0.066363864 0.61200005
0.11880373 -0.075745374 0.69900006
0.12086284 -0.075849406 0.70000005
0.12275171 -0.07584504 0.70000005
0.12464031 -0.075840645 0.70000005
0.12652862 -0.075836219 0.70000005
0.12860015 -0.075940102 0.70100003
0.13067678 -0.076043926 0.70200002
-0.0080306288 -0.07745678 0.69600004
-0.0061152866 -0.07712324 0.69300002
-0.004228428 -0.077012189 0.69200003
-0.0023435866 -0.076789767 0.69000006
-0.00047095795 -0.076789834 0.69000006
0.001405735 -0.077012382 0.69200003
0.003288534 -0.077123567 0.69300002
0.0051842085 -0.077345952 0.69500005
0.0070907213 -0.07756824 0.69700003
0.0090080667 -0.077790447 0.69900006
0.010936235 -0.078012556 0.70100003
0.012856906 -0.078123286 0.70200002
0.014761936 -0.078122653 0.70200002
0.016666912 -0.078121915 0.70200002
0.018545382 -0.078009829 0.70100003
0.020418355 -0.077897631 0.70000005
0.022253953 -0.077674091 0.69800001
0.031207778 -0.072102882 0.648
0.03296544 -0.072101414 0.648
0.03466941 -0.07198862 0.64700001
0.036311544 -0.071764477 0.64500004
0.037942711 -0.071540259 0.64300001
0.039686348 -0.071538508 0.64300001
0.041429855 -0.071536675 0.64300001
0.043173231 -0.071534768 0.64300001
0.046369303 -0.071085759 0.63900006
0.047800295 -0.070638679 0.63500005
0.049053483 -0.06996908 0.62900001
0.050273996 -0.069299459 0.62300003
0.05154524 -0.068741038 0.61800003
0.052875329 -0.068293817 0.61400002
0.054094762 -0.067735337 0.60900003
0.055561539 -0.067510501 0.60700005
0.056640334 -0.066840738 0.60100001
0.058171216 -0.066727035 0.60000002
0.059696499 -0.066613272 0.59900004
0.061216198 -0.066499464 0.59800005
0.062625207 -0.066274405 0.59600002
0.064130999 -0.0661605 0.59500003
0.065631188 -0.066046551 0.59400004
0.067352153 -0.06615492 0.59500003
0.068962447 -0.066152051 0.59500003
0.070809759 -0.066371478 0.597
0.072546385 -0.066479668 0.59800005
0.074164197 -0.066476621 0.59800005
0.076035246 -0.066695847 0.60000002
0.078046344 -0.067026161 0.60300004
0.080205575 -0.067467541 0.60700005
0.082521081 -0.068019971 0.61200005
0.11691272 -0.077640235 0.69900006
0.11896934 -0.077746928 0.70000005
0.12085845 -0.07774251 0.70000005
0.12274728 -0.077738062 0.70000005
0.12463585 -0.077733576 0.70000005
0.12616265 -0.077506982 0.69800001
0.12822874 -0.077613495 0.69900006
0.1301138 -0.077608928 0.69900006
0.13218746 -0.077715367 0.70000005
-0.007995639 -0.078999959 0.69300002
-0.0060885274 -0.078658298 0.69000006
-0.0042098989 -0.078544535 0.68900001
-0.00234008 -0.078544699 0.68900001
-0.00047025323 -0.078544758 0.68900001
0.0014016066 -0.078658745 0.69000006
0.0032836343 -0.078886628 0.69200003
0.005176506 -0.079114422 0.69400001
0.0070903883 -0.079456121 0.69700003
0.0090076439 -0.079683743 0.69900006
0.010935722 -0.079911254 0.70100003
0.012837991 -0.079910696 0.70100003
0.014761243 -0.080024034 0.70200002
0.016642392 -0.079909295 0.70100003
0.018544514 -0.079908468 0.70100003
0.020417402 -0.079793558 0.70000005
0.022284798 -0.079678565 0.69900006
0.024146691 -0.079563476 0.69800001
0.049363215 -0.072127946 0.63300002
0.050513826 -0.071328081 0.62600005
0.051542938 -0.070414245 0.61800003
0.052872982 -0.069956154 0.61400002
0.054092363 -0.069384091 0.60900003
0.055559088 -0.069153786 0.60700005
0.056732085 -0.068581663 0.60200006
0.058168668 -0.068351269 0.60000002
0.059693895 -0.068234757 0.59900004
0.061213538 -0.068118192 0.59800005
0.062832646 -0.06811548 0.59800005
0.064236015 -0.0678849 0.59600002
0.065738857 -0.067768186 0.59500003
0.067462482 -0.067879207 0.59600002
0.069191322 -0.067990161 0.597
0.070925377 -0.068101056 0.59800005
0.072543345 -0.068098009 0.59800005
0.074409127 -0.068322651 0.60000002
0.076285534 -0.068547219 0.60200006
0.078301959 -0.068885572 0.60500002
0.08033441 -0.069223844 0.60800004
0.082517706 -0.069675893 0.61200005
0.11518597 -0.07964883 0.70000005
0.11707558 -0.079644397 0.70000005
0.1189649 -0.079639927 0.70000005
0.12085396 -0.079635426 0.70000005
0.12256743 -0.079517134 0.69900006
0.12427521 -0.079398818 0.69800001
0.12615809 -0.079394236 0.69800001
0.1280407 -0.079389624 0.69800001
0.12992305 -0.079384983 0.69800001
0.13161631 -0.079266593 0.69700003
0.1338785 -0.079489358 0.69900006
-0.0098330267 -0.080526203 0.69000006
-0.0079491073 -0.080409929 0.68900001
-0.0060617654 -0.08017686 0.68700004
-0.0041974774 -0.080177099 0.68700004
-0.0023331759 -0.080177262 0.68700004
-0.00046954825 -0.080294035 0.68800002
0.0013995081 -0.080410719 0.68900001
0.0032739872 -0.080527321 0.69000006
0.0051613413 -0.080760531 0.69200003
0.0070697046 -0.081110351 0.69500005
0.008994326 -0.081460074 0.69800001
0.010935199 -0.0818097 0.70100003
0.012837378 -0.081809141 0.70100003
0.014739512 -0.081808463 0.70100003
0.0166416 -0.08180771 0.70100003
0.018543629 -0.081806868 0.70100003
0.020416433 -0.081689231 0.70000005
0.022283738 -0.081571504 0.69900006
0.02414554 -0.081453688 0.69800001
0.025927236 -0.081102423 0.69500005
0.027652545 -0.080634356 0.69100004
0.050592206 -0.073139422 0.62700003
0.051623989 -0.072203889 0.61900002
0.052870583 -0.071618274 0.61400002
0.054001108 -0.070916004 0.60800004
0.055556588 -0.07079687 0.60700005
0.056729544 -0.070211172 0.60200006
0.058166068 -0.069975317 0.60000002
0.059790894 -0.069972664 0.60000002
0.061313186 -0.069853336 0.59900004
0.062829882 -0.069733962 0.59800005
0.064448752 -0.069731139 0.59800005
0.06595695 -0.069611646 0.597
0.067572735 -0.069608711 0.597
0.069304228 -0.069722325 0.59800005
0.07092233 -0.06971927 0.59800005
0.072782837 -0.069949321 0.60000002
0.074529968 -0.070062727 0.60100001
0.07640902 -0.070292644 0.60300004
0.078428075 -0.070639051 0.60600001
0.080463164 -0.070985369 0.60900003
0.082649104 -0.07144817 0.61300004
0.11044671 -0.080851674 0.69400001
0.1132917 -0.081546262 0.70000005
0.11534606 -0.081658274 0.70100003
0.11723832 -0.081653751 0.70100003
0.11896037 -0.081532732 0.70000005
0.1208494 -0.08152815 0.70000005
0.12256283 -0.081407063 0.69900006
0.1242706 -0.081285961 0.69800001
0.12615344 -0.081281297 0.69800001
0.1278526 -0.081160165 0.69700003
0.12973221 -0.081155434 0.69700003
0.1316116 -0.081150703 0.69700003
0.1334907 -0.081145935 0.69700003
0.13575797 -0.081373975 0.69900006
-0.011704806 -0.082394093 0.69000006
-0.0097755473 -0.081916966 0.68600005
-0.0079025747 -0.081797995 0.68500006
-0.0060438239 -0.081798337 0.68500006
-0.004185054 -0.081798591 0.68500006
-0.0023296659 -0.081918158 0.68600005
-0.00046884286 -0.082037635 0.68700004
0.0013974087 -0.082157031 0.68800002
0.0032690826 -0.082276322 0.68900001
0.0051610894 -0.082634367 0.69200003
0.00706936 -0.082992315 0.69500005
0.0089938883 -0.083350152 0.69800001
0.010934666 -0.083707891 0.70100003
0.012836753 -0.083707318 0.70100003
0.014738796 -0.08370664 0.70100003
0.01664079 -0.083705872 0.70100003
0.018542729 -0.083705008 0.70100003
0.020415442 -0.083584644 0.70000005
0.02228266 -0.08346419 0.69900006
0.024144376 -0.083343655 0.69800001
0.025963286 -0.083103627 0.69600004
0.027771259 -0.08286351 0.69400001
0.029525561 -0.08250393 0.69100004
0.031218052 -0.082024865 0.68700004
0.051621601 -0.073879384 0.61900002
0.052868146 -0.073280185 0.61400002
0.054265056 -0.072919652 0.611
0.05555404 -0.072439745 0.60700005
0.05691541 -0.072079137 0.60400003
0.058260366 -0.071718484 0.60100001
0.059788186 -0.071596451 0.60000002
0.06141277 -0.071593694 0.60000002
0.062932126 -0.071471557 0.59900004
0.064445868 -0.07134936 0.59800005
0.066064507 -0.071346432 0.59800005
0.067682929 -0.071343437 0.59800005
0.069417067 -0.071459688 0.59900004
0.071156405 -0.071575858 0.60000002
0.072900973 -0.071691982 0.60100001
0.07477475 -0.071927316 0.60300004
0.076659136 -0.072162569 0.60500002
0.078554139 -0.072397754 0.60700005
0.080723971 -0.072871387 0.611
0.1085682 -0.082732789 0.69400001
0.11139715 -0.083443604 0.70000005
0.11361086 -0.083677478 0.70200002
0.11550606 -0.083672926 0.70200002
0.11740098 -0.083668321 0.70200002
0.11912571 -0.0835445 0.70100003
0.12084477 -0.083420664 0.70000005
0.12255818 -0.083296806 0.69900006
0.1242659 -0.08317291 0.69800001
0.12614872 -0.083168164 0.69800001
0.12784785 -0.083044238 0.69700003
0.12972745 -0.083039448 0.69700003
0.1316068 -0.08303462 0.69700003
0.13348588 -0.083029762 0.69700003
0.1355589 -0.083144009 0.69800001
0.13763709 -0.083258227 0.69900006
-0.013576352 -0.084261596 0.69000006
-0.011619413 -0.08365164 0.68500006
-0.0097465627 -0.083530039 0.68400002
-0.0078675738 -0.083286248 0.68200004
-0.0060170558 -0.083286598 0.68200004
-0.0041726278 -0.083408974 0.68300003
-0.0023227583 -0.083531253 0.68400002
-0.00046813718 -0.083775565 0.68600005
0.0013953083 -0.083897665 0.68700004
0.003264176 -0.084019668 0.68800002
0.0051533752 -0.084385827 0.69100004
0.0070588375 -0.084751889 0.69400001
0.0089934422 -0.085239962 0.69800001
0.010934124 -0.08560583 0.70100003
0.012836117 -0.085605234 0.70100003
0.014738066 -0.085604541 0.70100003
0.016639967 -0.085603759 0.70100003
0.018541813 -0.08560288 0.70100003
0.020414434 -0.085479796 0.70000005
0.022249684 -0.085234508 0.69800001
0.024143187 -0.085233353 0.69800001
0.025962012 -0.084987894 0.69600004
0.027769897 -0.084742337 0.69400001
0.029566841 -0.084496707 0.69200003
0.031398281 -0.084373109 0.69100004
0.033176042 -0.084127307 0.68900001
0.034891982 -0.083759338 0.68600005
0.036591541 -0.083391286 0.68300003
0.038274709 -0.083023176 0.68000001
0.040000491 -0.082777075 0.67800003
0.053037871 -0.075185999 0.61600006
0.054262523 -0.074573182 0.611
0.055551447 -0.074082404 0.60700005
0.057006996 -0.073835671 0.60500002
0.058548477 -0.073710926 0.60400003
0.059885073 -0.073342063 0.60100001
0.061409961 -0.073217228 0.60000002
0.063034303 -0.073214352 0.60000002
0.064550705 -0.073089398 0.59900004
0.066171981 -0.073086411 0.59900004
0.067906231 -0.073205367 0.60000002
0.069529831 -0.07320226 0.60000002
0.071271829 -0.073321082 0.60100001
0.073019035 -0.073439844 0.60200006
0.074895449 -0.073680528 0.60400003
0.076782472 -0.073921122 0.60600001
0.078680113 -0.074161656 0.60800004
0.080720469 -0.074524075 0.611
0.10190173 -0.083769031 0.68700004
0.1040597 -0.084008567 0.68900001
0.10653571 -0.084491879 0.69300002
0.10887663 -0.08485318 0.69600004
0.11171088 -0.085580118 0.70200002
0.11376812 -0.08569742 0.70300001
0.11566596 -0.085692771 0.70300001
0.11739632 -0.0855662 0.70200002
0.11929095 -0.085561477 0.70200002
0.12101267 -0.085434854 0.70100003
0.12255343 -0.085186332 0.69900006
0.12443916 -0.085181527 0.69900006
0.1259632 -0.084932975 0.69700003
0.12784304 -0.084928133 0.69700003
0.12972261 -0.084923245 0.69700003
0.13160191 -0.084918343 0.69700003
0.13348098 -0.08491341 0.69700003
0.13535976 -0.084908463 0.69700003
0.13743523 -0.085025296 0.69800001
0.14011461 -0.085507534 0.70200002
-0.013457616 -0.085380509 0.68400002
-0.011567941 -0.085131496 0.68200004
-0.009703326 -0.085007221 0.68100005
-0.0078556417 -0.085007668 0.68100005
-0.0060079298 -0.085008025 0.68100005
-0.0041663074 -0.085133106 0.68200004
-0.0023192451 -0.085258096 0.68300003
-0.00046674872 -0.085382991 0.68400002
0.0013932069 -0.085632637 0.68600005
0.0032640113 -0.085882179 0.68800002
0.0051531149 -0.086256452 0.69100004
0.0070584803 -0.086630613 0.69400001
0.0089929877 -0.087129518 0.69800001
0.010933572 -0.087503493 0.70100003
0.01285378 -0.087627716 0.70200002
0.014758347 -0.087627009 0.70200002
0.016662864 -0.087626204 0.70200002
0.018540882 -0.087500505 0.70100003
0.020413408 -0.087374687 0.70000005
0.022248568 -0.087123968 0.69800001
0.024141978 -0.087122798 0.69800001
0.025960712 -0.0868719 0.69600004
0.027768511 -0.086620912 0.69400001
0.029608088 -0.086494654 0.69300002
0.031396717 -0.086243503 0.69100004
0.033174392 -0.085992262 0.68900001
0.034941114 -0.085740954 0.68700004
0.036804017 -0.085739158 0.68700004
0.038610525 -0.085612483 0.68600005
0.040352486 -0.085360914 0.68400002
0.042145178 -0.085234068 0.68300003
0.043996733 -0.085231945 0.68300003
0.045848157 -0.085229732 0.68300003
0.047629599 -0.085102648 0.68200004
0.049478013 -0.085100263 0.68200004
0.053293616 -0.07722716 0.61900002
0.054526351 -0.076600775 0.61400002
0.055914871 -0.076223865 0.611
0.05719275 -0.075722165 0.60700005
0.058642652 -0.075469919 0.60500002
0.060181178 -0.075342365 0.60400003
0.061611794 -0.075090028 0.60200006
0.063031375 -0.074837625 0.60000002
0.064655475 -0.074834645 0.60000002
0.066279396 -0.074831598 0.60000002
0.068016291 -0.074953206 0.60100001
0.069642544 -0.074950039 0.60100001
0.071387172 -0.075071514 0.60200006
0.073258318 -0.075317621 0.60400003
0.075016074 -0.075438946 0.60500002
0.076779045 -0.075560212 0.60600001
0.078806028 -0.075930782 0.60900003
0.08098112 -0.076425925 0.61300004
0.10004128 -0.085631005 0.68700004
0.10219403 -0.085875928 0.68900001
0.10450839 -0.086245432 0.69200003
0.1068387 -0.08661484 0.69500005
0.1094978 -0.087233409 0.70000005
0.11186539 -0.08760263 0.70300001
0.11376346 -0.087597944 0.70300001
0.11566126 -0.087593228 0.70300001
0.1175588 -0.087588459 0.70300001
0.11928616 -0.08745908 0.70200002
0.12100787 -0.087329671 0.70100003
0.12272391 -0.087200232 0.70000005
0.12443431 -0.087070778 0.69900006
0.12613904 -0.086941309 0.69800001
0.12783813 -0.086811826 0.69700003
0.12971768 -0.086806864 0.69700003
0.13159697 -0.086801887 0.69700003
0.13347599 -0.086796872 0.69700003
0.13535477 -0.086791843 0.69700003
0.1372333 -0.086786792 0.69700003
0.13931118 -0.086906239 0.69800001
0.14200103 -0.08739914 0.70200002
-0.015312541 -0.087231137 0.68400002
-0.013417581 -0.086976826 0.68200004
-0.011533425 -0.086722396 0.68000001
-0.0096885785 -0.08672294 0.68000001
-0.0078437021 -0.086723395 0.68000001
-0.0059987991 -0.08672376 0.68000001
-0.0041599851 -0.086851567 0.68100005
-0.0023157308 -0.08697927 0.68200004
-0.00046604246 -0.087106876 0.68300003
0.0013931352 -0.087489456 0.68600005
0.0032638435 -0.087744415 0.68800002
0.0051528504 -0.088126794 0.69100004
0.007058118 -0.088509083 0.69400001
0.0090054097 -0.089146346 0.69900006
0.010948607 -0.089528419 0.70200002
0.01285312 -0.089527808 0.70200002
0.01475759 -0.089527108 0.70200002
0.016662011 -0.089526281 0.70200002
0.018539932 -0.089397848 0.70100003
0.020412367 -0.089269325 0.70000005
0.022311179 -0.089268215 0.70000005
0.024140749 -0.089011975 0.69800001
0.025922092 -0.088628113 0.69500005
0.027767099 -0.088499218 0.69400001
0.02960659 -0.088370234 0.69300002
0.03139513 -0.088113643 0.69100004
0.033172715 -0.087856963 0.68900001
0.03499021 -0.087727718 0.68800002
0.036802169 -0.087598391 0.68700004
0.038608585 -0.087468974 0.68600005
0.040409457 -0.087339468 0.68500006
0.042204779 -0.087209888 0.68400002
0.04405896 -0.08720772 0.68400002
0.045980133 -0.087332964 0.68500006
0.047906578 -0.087458104 0.68600005
0.049765751 -0.087455675 0.68600005
0.051474251 -0.087198175 0.68400002
0.054701317 -0.078516923 0.61600006
0.05609519 -0.078131832 0.61300004
0.05747265 -0.077746712 0.61000001
0.0588337 -0.077361554 0.60700005
0.06027795 -0.077103794 0.60500002
0.061813541 -0.076973423 0.60400003
0.063238502 -0.076715581 0.60200006
0.064867951 -0.076712534 0.60200006
0.066497222 -0.076709427 0.60200006
0.068126298 -0.07670626 0.60200006
0.069871061 -0.076830439 0.60300004
0.071621045 -0.076954558 0.60400003
0.073376238 -0.077078603 0.60500002
0.075136647 -0.077202581 0.60600001
0.07702896 -0.077453882 0.60800004
0.079061262 -0.077832483 0.611
0.081241682 -0.078338377 0.61500001
0.098037712 -0.087365493 0.68600005
0.10032815 -0.087743178 0.68900001
0.10248627 -0.087993443 0.69100004
0.10465492 -0.088243641 0.69300002
0.10683415 -0.088493749 0.69500005
0.10949317 -0.089125752 0.70000005
0.1118607 -0.089503013 0.70300001
0.11392055 -0.089625567 0.70400006
0.115821 -0.089620769 0.70400006
0.11755399 -0.089488618 0.70300001
0.11928132 -0.089356467 0.70200002
0.12100298 -0.089224271 0.70100003
0.12271901 -0.089092068 0.70000005
0.12442937 -0.088959843 0.69900006
0.12631479 -0.088954851 0.69900006
0.12783316 -0.088695318 0.69700003
0.12971267 -0.088690281 0.69700003
0.13159193 -0.088685222 0.69700003
0.13327944 -0.088552907 0.69600004
0.13515551 -0.088547811 0.69600004
0.13703133 -0.0885427 0.69600004
0.13910648 -0.088664763 0.69700003
0.14118679 -0.088786803 0.69800001
0.14388712 -0.089290403 0.70200002
-0.015266974 -0.088821761 0.68200004
-0.013357862 -0.088431798 0.67900002
-0.011498904 -0.088302203 0.67800003
-0.0096738264 -0.088432997 0.67900002
-0.0078317588 -0.088433467 0.67900002
-0.0059984862 -0.088564076 0.68000001
-0.0041536591 -0.088564344 0.68000001
-0.0023122146 -0.088694751 0.68100005
-0.00046601807 -0.088955306 0.68300003
0.0013930625 -0.089346014 0.68600005
0.0032636728 -0.089606367 0.68800002
0.0051600384 -0.090127118 0.69200003
0.0070780902 -0.090647765 0.69600004
0.0090178233 -0.091168307 0.70000005
0.010948037 -0.09142825 0.70200002
0.012852451 -0.091427632 0.70200002
0.014756822 -0.091426902 0.70200002
0.016661147 -0.091426082 0.70200002
0.018538969 -0.091294929 0.70100003
0.020440465 -0.091293901 0.70100003
0.022310024 -0.091162555 0.70000005
0.024139497 -0.090900868 0.69800001
0.02595805 -0.090639107 0.69600004
0.027765663 -0.090377249 0.69400001
0.029562345 -0.090115324 0.69200003
0.031393517 -0.089983515 0.69100004
0.033171013 -0.089721397 0.68900001
0.034988418 -0.089589424 0.68800002
0.036800284 -0.089457355 0.68700004
0.038606618 -0.089325212 0.68600005
0.040466394 -0.089323178 0.68600005
0.042264335 -0.089190848 0.68500006
0.044121146 -0.08918865 0.68500006
0.045977809 -0.089186341 0.68500006
0.047904167 -0.089314163 0.68600005
0.049763251 -0.089311689 0.68600005
0.051622178 -0.089309119 0.68600005
0.053325027 -0.089046098 0.68400002
0.056366965 -0.080180578 0.61600006
0.057752486 -0.079787277 0.61300004
0.059121598 -0.079393931 0.61000001
0.060474288 -0.079000562 0.60700005
0.062117577 -0.07899759 0.60700005
0.063550584 -0.078734249 0.60500002
0.065080352 -0.07860101 0.60400003
0.066714965 -0.078597844 0.60400003
0.068349391 -0.078594625 0.60400003
0.069983631 -0.078591332 0.60400003
0.07185483 -0.078848206 0.60600001
0.073494092 -0.078844778 0.60600001
0.07538113 -0.07910151 0.60800004
0.077152088 -0.079228058 0.60900003
0.079445809 -0.079874896 0.61400002
0.098319151 -0.089480221 0.68800002
0.10032372 -0.089605853 0.68900001
0.10248177 -0.08986146 0.69100004
0.10465036 -0.09011697 0.69300002
0.10698324 -0.090502456 0.69600004
0.10948847 -0.09101788 0.70000005
0.11185593 -0.091403164 0.70300001
0.11391573 -0.091528364 0.70400006
0.11581615 -0.091523498 0.70400006
0.1175491 -0.091388576 0.70300001
0.11927638 -0.091253631 0.70200002
0.12099804 -0.091118678 0.70100003
0.12288933 -0.091113664 0.70100003
0.12460237 -0.090978652 0.70000005
0.12630975 -0.090843618 0.69900006
0.12782809 -0.090578616 0.69700003
0.12970757 -0.090573505 0.69700003
0.13139804 -0.090438433 0.69600004
0.13327432 -0.090433277 0.69600004
0.13515036 -0.090428114 0.69600004
0.13702616 -0.090422906 0.69600004
0.13890173 -0.090417705 0.69600004
0.1409793 -0.090542376 0.69700003
0.14306203 -0.090667024 0.69800001
0.14577284 -0.091181301 0.70200002
-0.017166305 -0.09093219 0.68400002
-0.01517663 -0.090135403 0.67800003
-0.013317813 -0.09000323 0.67700005
-0.011481337 -0.090003893 0.67700005
-0.0096590677 -0.090137392 0.67800003
-0.00781981 -0.090137869 0.67800003
-0.0059893467 -0.090271175 0.67900002
-0.0041534388 -0.090404384 0.68000001
-0.0023120916 -0.090537511 0.68100005
-0.00046599336 -0.090803482 0.68300003
0.0013929886 -0.091202311 0.68600005
0.0032729867 -0.091733985 0.69000006
0.0051672203 -0.092132591 0.69300002
0.0070980522 -0.092796996 0.69800001
0.0090173446 -0.093062453 0.70000005
0.010931862 -0.093194865 0.70100003
0.01285177 -0.093327187 0.70200002
0.014756041 -0.093326449 0.70200002
0.016660266 -0.093325615 0.70200002
0.018537991 -0.093191735 0.70100003
0.020439388 -0.0931907 0.70100003
0.022308851 -0.093056634 0.70000005
0.024138227 -0.092789516 0.69800001
0.025993979 -0.092655256 0.69700003
0.02776421 -0.092255034 0.69400001
0.029560799 -0.091987662 0.69200003
0.031391874 -0.091853127 0.69100004
0.033169281 -0.091585577 0.68900001
0.034986597 -0.09145087 0.68800002
0.036798377 -0.091316067 0.68700004
0.038604617 -0.091181181 0.68600005
0.040405318 -0.091046207 0.68500006
0.042200461 -0.090911135 0.68400002
0.044054464 -0.090908915 0.68400002
0.045975454 -0.091039486 0.68500006
0.047901712 -0.091169968 0.68600005
0.049760718 -0.091167457 0.68600005
0.051619556 -0.091164857 0.68600005
0.053478248 -0.091162182 0.68600005
0.055014107 -0.090627857 0.68200004
0.056730159 -0.082378186 0.62
0.058032256 -0.081843853 0.61600006
0.059409432 -0.081442349 0.61300004
0.060770184 -0.081040785 0.61000001
0.062421519 -0.081037745 0.61000001
0.063862607 -0.08076895 0.60800004
0.065400422 -0.080632947 0.60700005
0.066932648 -0.080496885 0.60600001
0.068572417 -0.080493599 0.60600001
0.070212021 -0.080490254 0.60600001
0.072088547 -0.08075247 0.60800004
0.073854439 -0.080881797 0.60900003
0.075749509 -0.081143856 0.611
0.077781893 -0.08153864 0.61400002
0.096034989 -0.090946175 0.68500006
0.09845762 -0.091472797 0.68900001
0.10046484 -0.091601059 0.69000006
0.10262552 -0.091861986 0.69200003
0.10464574 -0.091990106 0.69300002
0.10697854 -0.092383623 0.69600004
0.1094837 -0.092909798 0.70000005
0.11169199 -0.093170404 0.70200002
0.11374903 -0.093298227 0.70300001
0.11564671 -0.093293294 0.70300001
0.11737692 -0.093155608 0.70200002
0.11927138 -0.093150601 0.70200002
0.120993 -0.093012862 0.70100003
0.12288427 -0.093007788 0.70100003
0.12459728 -0.092869997 0.70000005
0.12612393 -0.092599526 0.69800001
0.12782297 -0.092461705 0.69700003
0.12951633 -0.092323877 0.69600004
0.13139285 -0.092318684 0.69600004
0.13326912 -0.092313468 0.69600004
0.13495097 -0.092175581 0.69500005
0.13682406 -0.092170335 0.69500005
0.13869691 -0.09216506 0.69500005
0.14077176 -0.092292361 0.69600004
0.14264683 -0.092287064 0.69600004
0.14493692 -0.092546895 0.69800001
0.14765826 -0.093071871 0.70200002
-0.018964989 -0.092510477 0.68200004
-0.017065005 -0.092240155 0.68000001
-0.015131051 -0.091698438 0.67600006
-0.013277756 -0.091563545 0.67500001
-0.011446803 -0.091564208 0.67500001
-0.009630058 -0.09170045 0.67600006
-0.0078078569 -0.091836564 0.67700005
-0.0059890244 -0.092108242 0.67900002
-0.0041532153 -0.092244163 0.68000001
-0.0023119673 -0.092379995 0.68100005
-0.00046596827 -0.092651382 0.68300003
0.0013949441 -0.093193978 0.68700004
0.0032775535 -0.093736455 0.69100004
0.0051818541 -0.094278842 0.69500005
0.007107839 -0.094821125 0.69900006
0.0090168603 -0.094956346 0.70000005
0.010931275 -0.095091455 0.70100003
0.012851081 -0.095226459 0.70200002
0.01475525 -0.095225699 0.70200002
0.016659372 -0.095224857 0.70200002
0.018536998 -0.095088258 0.70100003
0.020438295 -0.095087215 0.70100003
0.022307659 -0.094950423 0.70000005
0.02417152 -0.094813518 0.69900006
0.025992593 -0.094540887 0.69700003
0.027762732 -0.094132535 0.69400001
0.029601945 -0.093995363 0.69300002
0.031390209 -0.093722463 0.69100004
0.033167526 -0.093449466 0.68900001
0.034984749 -0.09331204 0.68800002
0.036796436 -0.093174495 0.68700004
0.038602591 -0.093036883 0.68600005
0.040403198 -0.092899173 0.68500006
0.042198256 -0.092761368 0.68400002
0.044052165 -0.092759095 0.68400002
0.045905944 -0.092756733 0.68400002
0.047759578 -0.09275429 0.68400002
0.04961307 -0.092751749 0.68400002
0.051466405 -0.092749119 0.68400002
0.053319592 -0.092746407 0.68400002
0.055011299 -0.092472427 0.68200004
0.056441881 -0.091791615 0.67700005
0.058406144 -0.084051982 0.62
0.059794106 -0.083642304 0.61700004
0.061066013 -0.083097018 0.61300004
0.062725395 -0.083093911 0.61300004
0.06406951 -0.0826841 0.61000001
0.065720424 -0.082680881 0.61000001
0.067371145 -0.082677588 0.61000001
0.069021687 -0.082674235 0.61000001
0.070672035 -0.082670808 0.61000001
0.072440751 -0.082802847 0.611
0.074093424 -0.082799293 0.611
0.076117814 -0.08320222 0.61400002
0.078158222 -0.083605044 0.61700004
0.096451126 -0.093204103 0.68800002
0.098453112 -0.093335062 0.68900001
0.10046028 -0.093465969 0.69000006
0.10262088 -0.093732253 0.69200003
0.10479205 -0.093998447 0.69400001
0.10697379 -0.094264567 0.69600004
0.10932247 -0.094666041 0.69900006
0.1113689 -0.094796568 0.70000005
0.11358228 -0.095062464 0.70200002
0.11547721 -0.095057465 0.70200002
